# .PCD v0.7 - Point Cloud Data file format
VERSION 0.7
FIELDS x y z
SIZE 4 4 4
TYPE F F F
COUNT 1 1 1
WIDTH 1418
HEIGHT 1
VIEWPOINT 0 0 0 1 0 0 0
POINTS 1418
DATA ascii
7.5402927 8.4585962 -0.10136065
8.237936 8.4211197 -0.19148824
8.7514048 8.4275503 -0.10867736
5.2307506 8.5963125 -0.16356626
5.4793224 8.5447598 -0.16499649
5.5645123 8.5587835 -0.16593914
5.6490183 8.5703459 -0.16684929
5.7193952 8.55968 -0.16733685
7.5759249 8.5660372 -0.10229089
8.3396778 8.5788746 -0.19447871
5.2211256 8.6722488 -0.16454141
5.3528709 8.6433449 -0.16525653
5.4415593 8.6043692 -0.16548407
8.3326969 8.6801538 -0.19558391
8.7786465 8.6147127 -0.11001906
-3.0422034 8.7065411 -0.14991406
-2.9658439 8.7145815 -0.14963236
-2.8586471 8.7980127 -0.15036914
7.6140375 8.7189159 -0.10354314
8.3364506 8.7526455 -0.19647779
-2.8734782 8.8436575 -0.15114927
4.9637361 8.8633881 -0.1651265
5.4478955 8.8901577 -0.16948222
8.1916628 8.8896656 -0.19649404
8.3656998 8.8805513 -0.19831434
-2.8848491 8.9744835 -0.15322961
4.8991938 8.9448538 -0.16577661
5.5738754 8.9062233 -0.17078242
5.6543188 8.9406052 -0.17195261
5.7849174 8.9592543 -0.17335033
6.0398216 8.9780455 -0.17588572
7.5303974 8.9015636 -0.10429449
7.7674923 8.9512424 -0.10601186
7.826221 8.9052658 -0.10604764
8.1861963 8.9965124 -0.10880259
7.7518358 9.0474329 -0.10657239
-2.9087532 9.1473942 -0.15602505
5.2974901 9.1866274 -0.17237517
7.5244517 9.1539011 -0.10599398
7.7237349 9.1884928 -0.10737144
8.0300636 9.1372633 -0.19772923
8.1461754 9.114151 -0.16887216
8.4228086 9.1405058 -0.11118186
-2.9396064 9.2949505 -0.15846294
8.0077782 9.2575417 -0.19896445
5.0134211 9.3265257 -0.17211513
6.3635058 9.395278 -0.18445086
7.1712513 9.3965902 -0.19213833
7.4716225 9.356266 -0.10710311
7.7367425 9.3521156 -0.10857002
7.8152704 9.3868408 -0.19854186
7.9914274 9.3270521 -0.19964705
6.4608879 9.4111671 -0.18555604
6.5581675 9.4253664 -0.18664497
6.6575942 9.4411736 -0.18778265
6.7626991 9.4634304 -0.18906659
6.866065 9.4815454 -0.10471489
7.2642927 9.4260216 -0.19343856
7.3657932 9.4498329 -0.19475502
7.4519858 9.4528332 -0.1517134
7.5468864 9.4606152 -0.16724989
7.653182 9.4509192 -0.13844045
7.8649845 9.4314804 -0.10984911
-2.9628975 9.5244694 -0.16213602
5.2866807 9.5453033 -0.17736472
5.4643254 9.5451126 -0.17877869
6.9584799 9.5144653 -0.1054394
7.0591965 9.5259962 -0.10605659
7.1687522 9.5478191 -0.10679899
7.2438517 9.5538063 -0.10724622
7.4543495 9.563509 -0.10846269
7.6605892 9.5006561 -0.19837935
7.7425404 9.5101624 -0.19933826
-2.9875267 9.6571102 -0.16431387
5.4561853 9.6360245 -0.17999765
7.4497833 9.635417 -0.1089457
7.5573568 9.6174955 -0.10941083
-2.9876425 9.7114859 -0.165159
7.0570717 9.7776747 -0.19600648
7.1136131 9.791048 -0.19672158
7.3539114 9.7625151 -0.19867189
7.4361191 9.7437391 -0.13957684
-3.0105443 9.8686466 -0.16771068
4.9584637 9.8845806 -0.17975385
7.1513648 9.8105659 -0.19733918
7.2301321 9.8210144 -0.19823307
7.3299546 9.8266888 -0.19927324
-3.0049579 9.9340916 -0.16870208
-2.9979856 9.9675245 -0.16918966
4.9541163 9.9538164 -0.18072902
5.5526729 10.487093 -0.19288597
5.2916069 10.548695 -0.10556463
5.3152075 10.513202 -0.19148824
5.4701424 10.530404 -0.19288597
5.6748252 10.556944 -0.10721044
5.7013226 10.566404 -0.19516133
5.2940855 10.636884 -0.1062802
-3.7288156 10.780354 -0.14367396
5.0534301 10.783018 -0.19356857
5.297833 10.728777 -0.10703155
5.188591 10.805217 -0.19483627
5.2565603 10.81579 -0.10756823
5.3426523 10.84096 -0.15232708
-3.77543 11.02713 -0.10425872
-3.7845433 11.110664 -0.10499217
5.3353744 11.110891 -0.11025162
-3.8222871 11.279489 -0.10653065
-3.8524547 11.368512 -0.10737144
-3.3194489 11.314898 -0.19167243
-3.2423294 11.332919 -0.19160526
5.3390522 11.392479 -0.11254144
-3.2250414 11.469637 -0.19366609
5.3394837 11.48718 -0.11331069
-3.865962 11.527397 -0.19763172
-3.4423254 11.576563 -0.10803335
4.9612036 11.564205 -0.11255933
-3.9009337 11.631675 -0.19941951
-2.7890928 11.617412 -0.10687055
-3.2622452 11.851593 -0.19980957
-2.364399 11.886642 -0.10840902
-3.9762712 12.237706 -0.11509962
-3.9714696 12.354855 -0.11608353
-2.8760369 12.452679 -0.11432143
-4.0629325 12.777037 -0.11992972
5.6081843 12.84885 -0.12540384
5.4959431 13.387182 -0.12944682
-4.1708941 13.407671 -0.12560062
5.3061438 13.463539 -0.12944682
5.3293223 13.905116 -0.13320357
5.3298469 14.172317 -0.13543972
-4.3792605 14.235012 -0.13322145
5.299674 14.505569 -0.13814101
-4.4462748 14.616061 -0.13665619
-4.4775195 14.886591 -0.13905336
-3.904707 15.011868 -0.13874924
-4.8524208 16.413044 -0.15309644
-4.8504763 16.598097 -0.15467966
-4.7969236 16.608448 -0.15463492
-2.6714284 16.696966 -0.15125385
-4.7475376 16.732819 -0.15558305
-2.7106073 16.941843 -0.15347213
-2.6552043 16.936443 -0.15334688
-2.6796751 17.092529 -0.15476015
-3.328079 17.153431 -0.15629864
-3.2999902 17.152746 -0.15624496
-2.6259673 17.100864 -0.15476014
-2.5440052 17.1658 -0.15522528
-3.1760442 17.237139 -0.15678163
-2.6962132 17.933729 -0.16221997
-2.7591395 18.95952 -0.17137928
-2.7347603 19.001442 -0.17171918
-3.4816582 19.23465 -0.17484979
-5.4296999 19.847858 -0.18406278
-3.6410379 20.482058 -0.18608427
-3.135771 20.420815 -0.18480518
-2.8740337 20.42395 -0.18449213
-5.5140657 20.53574 -0.19019881
-3.9577076 20.747042 -0.18892866
-5.5402408 20.895126 -0.1933652
-3.9996796 20.967066 -0.19093227
-2.8372321 21.123455 -0.19064602
-3.6470053 21.493919 -0.19501102
-2.8348999 21.424889 -0.19331601
-2.7401855 21.554634 -0.19435807
-2.6551557 21.562269 -0.19433123
-8.321105 65.868393 -0.10863002
-8.4499474 66.888283 -0.11031201
-9.0943155 73.85408 -0.12175227
-8.5396175 75.184479 -0.12380732
-8.4139109 75.130226 -0.12369606
-8.3002825 75.183105 -0.1237615
-8.5481949 75.260002 -0.12393168
-8.076642 75.326141 -0.12395459
-7.9614687 75.368568 -0.12400366
5.6942472 75.379135 -0.12368625
-7.7576537 75.715523 -0.12453379
-7.4426007 76.179199 -0.12523735
-7.351985 76.493401 -0.12573476
-7.361743 76.594933 -0.12590164
-7.2534719 76.733833 -0.12611108
-7.145339 76.878563 -0.12633033
-7.1521864 76.95224 -0.1264514
-7.0429544 77.090851 -0.12666084
-6.9985776 77.956375 -0.12806469
-6.8899665 78.124664 -0.12832321
-6.7691455 78.157303 -0.1283592
-6.8129787 78.663414 -0.12919039
-5.527277 79.84481 -0.13095421
11.70099 -57.409634 -0.095864445
10.202487 -42.204273 -0.071043424
10.12271 -41.305649 -0.069583945
11.694058 -40.728371 -0.069331966
10.056872 -39.949532 -0.067404531
11.504463 -39.598618 -0.067469984
11.259947 -38.307373 -0.06532985
11.263943 -37.880733 -0.064662278
8.4019938 -37.58836 -0.063019544
9.8280268 -37.303001 -0.063117713
9.7572575 -37.271957 -0.063039176
8.2435837 -36.080185 -0.060555436
9.6017628 -35.98497 -0.060938306
9.4507961 -34.977661 -0.059282478
9.5638027 -34.959373 -0.059302114
9.915782 -34.948494 -0.059439555
9.6415577 -34.813507 -0.059105773
9.7638292 -34.829266 -0.059184313
10.457746 -34.769279 -0.059406832
10.51467 -34.760471 -0.059419926
10.635515 -34.765514 -0.059485368
11.214105 -34.698841 -0.059665352
11.451341 -34.686569 -0.059766795
10.674936 -34.506474 -0.059099227
10.715222 -34.255161 -0.058726173
10.828818 -34.240398 -0.0587589
10.942426 -34.225262 -0.058791623
11.183952 -34.237587 -0.058932338
11.529777 -34.200779 -0.059053414
11.586691 -34.192101 -0.059069779
12.625158 -34.057152 -0.059429739
12.741905 -34.043541 -0.059475549
12.975517 -34.015133 -0.059567176
13.119788 -33.912575 -0.059495185
10.664644 -31.148872 -0.053869963
12.15268 -30.8356 -0.054229926
12.089095 -30.393997 -0.053519815
10.556677 -30.212746 -0.05236467
9.8523951 -28.484161 -0.049314804
10.015191 -28.376434 -0.049236268
9.32973 -27.964697 -0.048234917
11.737144 -27.962534 -0.049619138
10.686972 -27.884142 -0.048859943
11.715785 -27.789261 -0.049344257
10.464257 -27.692848 -0.048437808
10.478686 -27.340691 -0.04790768
9.6912813 -27.186245 -0.047223751
11.642564 -27.137968 -0.048316728
9.733284 -27.035231 -0.047014318
9.8209047 -27.012039 -0.047027409
9.917429 -27.01297 -0.047083039
10.197776 -26.115522 -0.045872256
10.481446 -26.112915 -0.046039149
-1.7493978 -24.168737 -0.039648186
10.045864 -24.145515 -0.042789675
10.758082 -24.027487 -0.043074373
10.850799 -24.031849 -0.04314309
10.933697 -24.014025 -0.043172542
11.025776 -24.015909 -0.043237992
11.119655 -24.02108 -0.043309983
10.151436 -23.868942 -0.042439528
11.535641 -23.830772 -0.043319799
11.805033 -23.81238 -0.043486692
-1.6271895 -23.505716 -0.038551938
10.444757 -23.525579 -0.042115562
9.5363045 -23.438175 -0.041402183
9.6352367 -23.365265 -0.041353099
-1.8965297 -21.504503 -0.035322096
-2.3851357 -20.709074 -0.034108043
-2.8995066 -20.604965 -0.034045868
-2.4396009 -20.612103 -0.033960789
-2.3467402 -20.661098 -0.034022961
-2.1128888 -20.622013 -0.033918243
-2.0500724 -20.648453 -0.03395097
-1.9857665 -20.660765 -0.033960786
-2.237009 -20.558599 -0.033836436
-2.1755643 -20.595385 -0.03388552
-1.6854953 -20.589098 -0.033800442
-3.2460091 -20.494507 -0.03395097
8.915659 -17.70372 -0.032432586
8.6222086 -17.255743 -0.031562131
8.7662163 -17.271645 -0.031691387
7.4107714 -17.125278 -0.030531328
7.3877268 -16.925945 -0.030217182
7.37076 -16.743401 -0.029932484
7.6950874 -16.554949 -0.029870309
7.7555456 -16.5488 -0.02990303
7.8610935 -16.503355 -0.029909577
7.9241567 -16.502014 -0.029952116
7.6980033 -15.651303 -0.028538447
6.9872756 -14.788375 -0.026761547
6.5841241 -12.82233 -0.02358406
6.8625298 -12.344737 -0.023109565
-1.1413577 -12.280042 -0.020179147
-1.139837 -12.058231 -0.01981755
-0.84413898 -10.725819 -0.017603781
-1.2487921 -10.607974 -0.079920523
-1.0376952 -10.621779 -0.095464341
-1.3196837 -10.579999 -0.017445071
-1.1527115 -10.593511 -0.095318548
-1.0856547 -10.596103 -0.0952783
-0.96340704 -10.545094 -0.068904325
-0.8963502 -10.541947 -0.017310904
-1.3313441 -10.407175 -0.017166918
-1.0913723 -10.489363 -0.017255273
-1.1252126 -10.340949 -0.017019663
-1.0875784 -9.711278 -0.015988862
-1.1274135 -9.2757235 -0.015288571
-1.247828 -8.9696064 -0.014817348
-1.2588091 -8.8448601 -0.014617733
-1.1952904 -7.546771 -0.040376555
-1.2103443 -7.342907 -0.012176535
-1.3681867 -7.1115746 -0.011849297
-1.2192019 -6.8584585 -0.011397708
-1.167982 -6.8836045 -0.011423888
-0.86522567 -6.8494177 -0.036393475
-0.88378739 -6.7402968 -0.011122828
-0.88200629 -6.6457176 -0.010969026
-0.88914329 -6.5418434 -0.010802135
-1.2449602 -6.4710665 -0.058945172
-1.4143839 -6.3275914 -0.05799704
-1.2197026 -6.1318617 -0.010229467
-0.86861873 -6.1729288 -0.055760879
-0.8824966 -6.0641141 -0.01002658
-0.884772 -5.9485526 -0.0098400544
-1.3635314 -5.8409495 -0.0098138759
-0.94311714 -5.8358893 -0.052952375
-0.88602966 -5.8310599 -0.0096502556
-1.3579129 -5.7354355 -0.0096437111
-0.95015711 -5.7447786 -0.066343032
-0.88778466 -5.7215252 -0.0094735473
-0.74236119 -5.7316198 -0.072849274
-1.3446758 -5.6794767 -0.037970021
-1.2685531 -5.6751823 -0.094525173
-1.1150477 -5.6676826 -0.051562093
-1.0524098 -5.6615624 -0.056655947
-0.95348942 -5.6490321 -0.055817749
-0.85440505 -5.6226659 -0.059207536
-0.75858516 -5.6213107 -0.06731271
-1.2469049 -5.5783329 -0.0093524698
-0.96568376 -5.5849004 -0.050698217
-13.136671 -4.7995386 -0.022883771
-1.2139709 -4.549818 -0.0077048251
-1.0050368 -4.4308448 -0.073851861
-0.9900797 -4.4956603 -0.074827015
-0.80474406 -4.4260468 -0.056699481
-0.79376513 -4.4653945 -0.073721834
-1.0077398 -4.3789454 -0.073039226
-0.96440017 -4.3790565 -0.0073366822
-0.81451702 -4.3441172 -0.039535306
-1.0248513 -4.2104959 -0.07043881
-0.97903937 -4.2545996 -0.028210742
-0.83236653 -4.219306 -0.054146491
-1.2596025 -4.1406446 -0.007081436
-1.0196037 -4.1213799 -0.044166517
-0.98298395 -4.1230717 -0.053474993
-1.0301805 -4.0454659 -0.064087763
-1.0314615 -3.9401042 -0.060369045
-0.87231392 -3.9609203 -0.036279459
-1.0376207 -3.8403442 -0.059780519
-0.8790853 -3.847692 -0.03530449
5.670712 -3.8278251 -0.061199222
5.8757811 -3.8498595 -0.062836088
-1.0363449 -3.739275 -0.052516475
-0.88541603 -3.7662435 -0.091176085
5.6556387 -3.7534277 -0.035984423
5.841774 -3.7331228 -0.062013183
-1.3866885 -3.6011698 -0.090940483
-1.0408258 -3.6359048 -0.066102207
-0.88657403 -3.6509566 -0.042850137
5.3576293 -3.6164894 -0.01057634
5.6355572 -3.6483116 -0.023233527
5.819849 -3.6423843 -0.061413892
-1.4195912 -3.5936904 -0.091058284
-1.346827 -3.5752656 -0.090037368
-1.255296 -3.5437014 -0.088597983
-1.1603901 -3.5145791 -0.087224789
-1.0345789 -3.5406461 -0.053866062
-0.88759887 -3.5495558 -0.032728434
5.3554668 -3.5784411 -0.010538708
5.616941 -3.5523069 -0.010874128
5.7924109 -3.5308533 -0.06068043
5.8427429 -3.5362685 -0.061091885
-1.429559 -3.4608791 -0.088245265
-1.1118312 -3.4964633 -0.086464144
-1.0463473 -3.4522729 -0.052951846
-0.89212883 -3.4524429 -0.031896584
5.3245063 -3.4379895 -0.01037018
5.5981116 -3.4426646 -0.01075305
5.6069484 -3.4968097 -0.010811952
5.7712455 -3.4499962 -0.035638526
5.8676367 -3.4453342 -0.060865283
-5.7105708 -3.3049765 -0.01079559
-1.4279802 -3.3579283 -0.085992947
-1.0233068 -3.3510063 -0.031434026
-0.89676034 -3.3609574 -0.056542829
5.5758967 -3.3689566 -0.01065924
5.7484999 -3.3511281 -0.010887217
5.8540168 -3.3879969 -0.060501538
-5.6569629 -3.2977209 -0.01071378
-1.4257628 -3.2279031 -0.036976002
-1.3467747 -3.23929 -0.033234887
-1.2462558 -3.2190425 -0.024148913
-1.1687455 -3.2040987 -0.013887773
-1.0235212 -3.2440743 -0.034047455
-0.89282227 -3.2438974 -0.03009573
5.724319 -3.2532768 -0.058895975
-1.5634296 -3.1290674 -0.018586265
-1.4243894 -3.1374907 -0.081202477
-1.3666151 -3.1568956 -0.041851215
-1.2433199 -3.1627195 -0.044000622
-1.1445427 -3.1714859 -0.032440946
-1.0524676 -3.1482008 -0.030562673
-0.96465123 -3.1200314 -0.032178398
-0.89462733 -3.1534104 -0.029320529
5.5441489 -3.1508617 -0.010433991
5.7376904 -3.1512845 -0.05855608
-5.3663468 -3.0163822 -0.010072393
-1.5608931 -3.0515289 -0.0097716972
-1.4234059 -3.0499172 -0.079317704
-1.366266 -3.0564692 -0.036022879
-1.233726 -3.0460622 -0.037475791
-0.90802491 -3.0891845 -0.028801737
-0.89943123 -3.0958631 -0.028837515
5.5253525 -3.0678318 -0.02569334
5.6722732 -3.0491803 -0.022248859
5.7432399 -3.0410328 -0.058131211
9.2572136 -3.0078516 -0.08706712
9.4421072 -3.0024691 -0.016211383
9.8203335 -3.0042517 -0.091861449
9.9713783 -3.0162339 -0.093185253
10.067417 -3.0107965 -0.017193098
10.44313 -3.0162292 -0.017785398
10.54102 -3.0086563 -0.017935928
-5.8086476 -2.9481685 -0.01065815
-5.3805151 -2.9579647 -0.010046214
-5.2415199 -2.913811 -0.0098122396
-1.5573238 -2.9637506 -0.0054779686
-1.4212615 -2.952826 -0.07722874
-1.3574424 -2.9395032 -0.025648216
-1.2311784 -2.9593027 -0.028670549
5.4686403 -2.950618 -0.010167292
5.6569691 -2.9611995 -0.041547507
5.9756403 -2.9041936 -0.010870855
6.1518764 -2.9066477 -0.011132646
6.2334175 -2.9212728 -0.01126354
6.4974256 -2.9214218 -0.011656227
6.5629439 -2.9261296 -0.064276174
6.6803684 -2.9283061 -0.011934379
6.758975 -2.9374833 -0.065921992
6.8777704 -2.9506588 -0.012245256
6.989892 -2.9468968 -0.067854032
7.1378837 -2.9566081 -0.012641214
7.2912726 -2.96661 -0.070412204
7.3509207 -2.9639971 -0.012968453
7.5513892 -2.9623985 -0.072558917
7.6923966 -2.9759636 -0.013495306
7.7726746 -2.978982 -0.013619657
8.0476627 -2.983254 -0.045287043
8.3951569 -2.9778285 -0.079678841
-1.549288 -2.8181443 -0.016962815
-1.4281003 -2.8509665 -0.090595171
-1.3576976 -2.8553934 -0.031671114
-1.2319381 -2.8716893 -0.033696063
5.2410736 -2.88131 -0.031631012
5.4829631 -2.8519421 -0.040076412
5.6695566 -2.8574696 -0.038166456
5.7596836 -2.8892658 -0.057639252
6.0990815 -2.8117158 -0.010988661
6.158814 -2.8158257 -0.011080287
6.2259183 -2.8228917 -0.011185003
6.3565111 -2.810184 -0.011371529
7.1685677 -2.8382363 -0.012615034
7.3372545 -2.8518279 -0.012880098
7.525836 -2.8572938 -0.01317134
7.8147497 -2.8551536 -0.013613111
7.9677896 -2.8544512 -0.075707421
8.3971176 -2.8749766 -0.079392619
8.559453 -2.8705986 -0.014771535
8.6459198 -2.8694127 -0.081485659
8.7593966 -2.8765552 -0.082469575
9.2041903 -2.8791268 -0.015779428
9.3064518 -2.8790479 -0.087138668
9.7235498 -2.8747096 -0.090698645
9.8208361 -2.8699524 -0.091521546
10.165439 -2.8669508 -0.017281452
10.270329 -2.8617311 -0.095367737
10.382744 -2.8754866 -0.096369542
10.724766 -2.861659 -0.018161723
-1.7565966 -2.7111328 -0.099757478
-1.4153554 -2.7353494 -0.095107071
-1.3510108 -2.7567213 -0.038683973
-1.2253129 -2.7577245 -0.040295426
5.3717899 -2.7690268 -0.076226473
5.4379683 -2.7707248 -0.039799817
5.5926919 -2.7398322 -0.055707213
5.6369886 -2.7724578 -0.021811284
5.7612019 -2.7664461 -0.010456898
5.8478642 -2.762979 -0.057853922
5.9443045 -2.7743416 -0.034580879
6.0958891 -2.7408798 -0.059785966
6.3284287 -2.7740352 -0.061807454
6.4823508 -2.7810183 -0.06309548
6.5354781 -2.7795322 -0.011620231
6.7126403 -2.7804663 -0.064991742
6.8832226 -2.7754145 -0.066387109
6.9256048 -2.7672405 -0.012202715
7.1717076 -2.774524 -0.068784274
7.2494841 -2.7784622 -0.069446176
7.5071068 -2.7695174 -0.071575001
7.9392939 -2.7740808 -0.013760368
8.6412706 -2.7478135 -0.081109986
8.7226934 -2.7435615 -0.014961333
9.1607265 -2.7396386 -0.085528642
9.4436054 -2.7275424 -0.087925799
9.5328979 -2.7209144 -0.088677146
9.9465036 -2.7210557 -0.016872404
-1.7429508 -2.6354487 -0.097572193
-1.4132612 -2.6390595 -0.070549555
-1.3447307 -2.6495681 -0.04591544
-1.2160903 -2.6380615 -0.025984176
5.380918 -2.6992636 -0.0098498715
5.571981 -2.6461823 -0.077644177
6.2456264 -2.6331186 -0.011090104
6.4875569 -2.639601 -0.011459884
6.658793 -2.6364024 -0.064061508
6.7364788 -2.6304708 -0.038340673
6.9478073 -2.6378367 -0.066476561
7.0732164 -2.6347222 -0.012349972
7.1964302 -2.6292479 -0.068533823
7.3889284 -2.6209116 -0.01282774
7.8158398 -2.621212 -0.073739611
8.0307112 -2.6093366 -0.013815999
8.3525467 -2.6127272 -0.078283481
8.5577831 -2.6032591 -0.014635731
10.620291 -2.6912913 -0.017926112
-1.7171062 -2.5181463 -0.09411937
-1.6982889 -2.5244648 -0.093954749
-1.4196771 -2.5697489 -0.06918703
-1.330828 -2.5479872 -0.046766989
-1.2136953 -2.5399866 -0.025180949
5.5549784 -2.5820706 -0.054794859
9.1506586 -2.5807531 -0.085045628
9.508997 -2.5692854 -0.016116485
9.6094046 -2.5640502 -0.088963382
9.8188763 -2.5539658 -0.090752304
10.147511 -2.537585 -0.017114561
10.378555 -2.5261807 -0.095546633
10.472411 -2.5142035 -0.01762178
10.606283 -2.5287292 -0.097532347
10.709984 -2.5179205 -0.018001376
10.844483 -2.5136166 -0.01821408
-1.6901197 -2.429122 -0.091382623
-1.3200798 -2.4468212 -0.020864112
-1.2115452 -2.4730649 -0.024633536
5.3631096 -2.4520576 -0.052749522
5.5259466 -2.4534979 -0.098279528
-1.6751108 -2.353924 -0.089216888
-1.4868491 -2.3430343 -0.0045404308
-1.3129568 -2.3445785 -0.029024752
-1.2293448 -2.3593507 -0.043248191
-1.1839694 -2.369606 -0.043048065
5.3637881 -2.3645964 -0.02386719
5.4574757 -2.3361685 -0.074670136
5.5261612 -2.3605113 -0.097678185
6.8099709 -2.379482 -0.064526625
7.4536848 -2.3444183 -0.069893412
-1.6505961 -2.2644114 -0.086531587
-1.3078465 -2.2790504 -0.042711854
-1.2721248 -2.2551839 -0.04209426
-1.1900029 -2.2421987 -0.029001683
5.4726849 -2.2368016 -0.096101671
5.5078192 -2.2007406 -0.096410476
8.3951721 -2.2966595 -0.077854142
8.9313221 -2.2632895 -0.082415901
9.7885075 -2.2041407 -0.089750513
-3.4639738 -2.1503673 -0.096084356
-1.6142421 -2.1570654 -0.0831981
5.4714804 -2.1332343 -0.081143111
9.968235 -2.1788943 -0.091271102
10.531061 -2.1463966 -0.09613698
-3.4578695 -2.0469401 -0.094698265
-3.2592564 -2.0238101 -0.0062772478
-3.0846572 -2.0193405 -0.032978885
-1.6043624 -2.0705905 -0.080888338
-1.5861592 -2.0407705 -0.079818331
7.4833388 -2.0219624 -0.069338843
-3.4424567 -1.977909 -0.093563467
-3.2332578 -1.9397175 -0.03643281
-3.0813205 -1.9504904 -0.032621101
7.4422951 -1.9108568 -0.068730608
7.5526786 -1.9645101 -0.012768837
-3.5064573 -1.8074927 -0.092966624
-3.4418883 -1.801671 -0.09155304
-3.2237024 -1.8666264 -0.036747571
-3.0696576 -1.8482301 -0.039512869
-1.0149798 -1.8057178 -0.048815724
5.395371 -1.8852048 -0.092899911
7.5748329 -1.8406876 -0.041319996
-3.4599516 -1.7973017 -0.091882877
-3.392009 -1.7350321 -0.0062338887
-3.2051229 -1.794955 -0.059712086
-3.1904807 -1.7540104 -0.059181165
-3.0558989 -1.7846549 -0.031655077
-1.0150723 -1.7503475 -0.047684856
7.5580444 -1.751914 -0.050581656
7.7924361 -1.729007 -0.013060078
-3.226548 -1.6632062 -0.0059393747
-3.1801195 -1.6741428 -0.01897721
-3.0475814 -1.6505646 -0.031002119
-1.0089122 -1.6495875 -0.045570374
7.5465565 -1.657903 -0.031507842
7.6793671 -1.6406858 -0.070242256
7.7995877 -1.6279984 -0.071270883
-3.4958649 -1.5619471 -0.090233698
-3.1741233 -1.5797797 -0.057631753
-1.1506941 -1.5126917 -0.07259886
-1.0034525 -1.5597467 -0.048313804
-0.96494174 -1.5511631 -0.032138336
-0.87514758 -1.5268186 -0.0060186749
7.5307531 -1.5565114 -0.012582311
7.6674585 -1.5251749 -0.069929183
7.7707801 -1.5627351 -0.05154353
-3.5271134 -1.4441565 -0.089819051
-3.2558856 -1.4313262 -0.0058193868
-3.1231108 -1.4338181 -0.030739745
-1.1439599 -1.4356664 -0.084939443
-1.0874022 -1.420207 -0.068323851
-0.98688012 -1.4558259 -0.041449387
-0.86527759 -1.4435787 -0.014308946
-0.79645467 -1.4117664 -0.01449926
7.4857111 -1.4767804 -0.01248414
7.5255909 -1.4356068 -0.012535407
7.6615343 -1.4615159 -0.069768183
7.7663364 -1.4562361 -0.070680536
-3.5134258 -1.3511945 -0.088712417
-3.2560511 -1.3561413 -0.027200438
-3.1164968 -1.3472092 -0.033457313
-3.0995765 -1.3010322 -0.054641273
-1.1380948 -1.3547683 -0.089147605
-1.0803813 -1.3349689 -0.062229879
-0.96062505 -1.3504832 -0.060551234
-0.85698259 -1.3472877 -0.016641546
-0.78054333 -1.3522075 -0.016886415
7.4351673 -1.3458372 -0.012363061
7.5259686 -1.3256706 -0.040414736
7.6497173 -1.3722825 -0.041153651
7.7477055 -1.3396742 -0.070331693
-3.5165596 -1.2681727 -0.088097624
-3.3833659 -1.2240937 -0.0058870162
-3.2526517 -1.2462015 -0.022558246
-3.113781 -1.248491 -0.033062167
-1.1143266 -1.2537372 -0.088643149
-1.0451045 -1.2436044 -0.063549206
-0.93530887 -1.2493641 -0.061118163
-0.84190106 -1.2578511 -0.013570646
-0.76704931 -1.2491817 -0.014269124
7.3607841 -1.2489485 -0.012215804
7.5079002 -1.2405907 -0.054160729
7.6234894 -1.2566459 -0.02679484
-3.2430198 -1.1472951 -0.039024156
-3.1219356 -1.1749719 -0.038016934
-3.0861602 -1.1293766 -0.045392759
-1.0439936 -1.1551993 -0.069087662
-0.95951802 -1.1365 -0.052341916
-0.83666116 -1.1459405 -0.035692427
-0.76123655 -1.1494589 -0.015358696
7.4509797 -1.1681243 -0.012340154
7.5121961 -1.1535709 -0.054101337
-3.2336621 -1.0727112 -0.037154384
-3.1251676 -1.0154289 -0.0053765248
-3.0672643 -1.0717208 -0.033015288
-1.0392474 -1.059262 -0.074478798
-0.94967818 -1.0481591 -0.063461915
-0.84261191 -1.0518658 -0.057850402
-0.75930089 -1.0419735 -0.012726764
7.2493596 -1.0665855 -0.02536365
7.390152 -1.0162675 -0.066727005
7.4916058 -1.0422585 -0.040053241
7.5793157 -1.066552 -0.012523408
7.7219677 -1.06197 -0.069723457
-3.3767233 -0.97238398 -0.0057495758
-3.0521808 -0.98112285 -0.0052456292
-1.014516 -0.96700573 -0.07406792
-0.93770671 -0.94978476 -0.054087531
-0.85298073 -0.94475734 -0.069647975
-0.75322384 -0.95455933 -0.010202949
-0.69353169 -0.92377901 -0.010332848
7.1737781 -0.96933103 -0.011844389
7.3791699 -0.95577013 -0.039369635
7.6734819 -0.96323109 -0.055017717
7.7301478 -0.95185632 -0.031682376
-0.94362503 -0.85669476 -0.057718828
-0.84916097 -0.84595329 -0.054290872
-0.75385773 -0.85014123 -0.048676886
-0.67174894 -0.85133028 -0.010450267
7.317987 -0.85448653 -0.065904103
7.4712305 -0.87238002 -0.012307431
7.5481281 -0.8213743 -0.067916647
7.6551223 -0.85321617 -0.03126394
7.7330065 -0.85373163 -0.012729568
-1.1407063 -0.74167216 -0.032064766
-1.0395046 -0.72857356 -0.029917695
-0.95533526 -0.71705598 -0.028150491
-0.83408689 -0.75006407 -0.053145409
-0.76975501 -0.74442697 -0.063260473
-0.65769124 -0.73409343 -0.040324077
7.4395409 -0.77405131 -0.066905901
7.5927649 -0.7598623 -0.068256542
7.6069264 -0.79146701 -0.01251359
7.7349119 -0.76389599 -0.031626962
7.840199 -0.7286939 -0.01288337
7.9320889 -0.71210665 -0.013030628
-3.1016872 -0.60683978 -0.097596884
-3.0527101 -0.60722202 -0.096115343
-1.1445059 -0.63666785 -0.031804543
-1.043982 -0.69045275 -0.029496759
-0.95723826 -0.61170876 -0.0018587133
-0.82915533 -0.65845639 -0.045833666
-0.76672119 -0.65396959 -0.056759603
-0.63782561 -0.6458931 -0.058465019
-0.56799561 -0.6431914 -0.0076759914
7.25456 -0.69725668 -0.011924562
7.4646034 -0.68196285 -0.067049012
7.7459745 -0.64023674 -0.026870105
7.8125343 -0.65191776 -0.070125975
7.9350486 -0.64959133 -0.071217217
-1.1231127 -0.55413032 -0.047596842
-1.0239736 -0.54529446 -0.064176127
-0.94447136 -0.55092102 -0.074342996
-0.85163385 -0.55142158 -0.05282275
-0.74708688 -0.53682816 -0.053135607
-0.65518409 -0.54603559 -0.052734885
-0.56802297 -0.54354089 -0.035312116
7.5570555 -0.55893379 -0.067782477
7.734498 -0.54758799 -0.026836181
7.9304523 -0.5532006 -0.051718138
-1.1113729 -0.41266248 -0.065561682
-1.0322492 -0.46512163 -0.040275559
-0.94957024 -0.47095475 -0.046536084
-0.84584004 -0.45667273 -0.04981292
-0.75094676 -0.45362926 -0.051197737
-0.64741105 -0.45906141 -0.045762133
-0.55686343 -0.4512243 -0.04059808
-0.47996444 -0.4330554 -0.0057848636
7.3465986 -0.43904209 -0.065832548
7.6916757 -0.43541801 -0.012605217
7.7206664 -0.47361302 -0.031463556
7.9161963 -0.46473944 -0.032279044
-1.1257952 -0.37624165 -0.027973233
-1.0497682 -0.3624264 -0.047751755
-0.93152303 -0.33994514 -0.070656933
-0.85027444 -0.35133913 -0.0611265
-0.74203438 -0.35800093 -0.042660199
-0.6489383 -0.3469294 -0.055709481
-0.56094074 -0.36493069 -0.041921034
-0.47311419 -0.3870157 -0.016141972
7.3112679 -0.39084542 -0.065492645
7.6539421 -0.32483321 -0.040584683
7.7038383 -0.37542778 -0.012619943
7.8650146 -0.37099442 -0.05138915
7.9050865 -0.32302865 -0.070769988
-1.0109382 -0.27826896 -0.05541021
-0.94677776 -0.26499745 -0.045857783
-0.8464098 -0.26158953 -0.04776746
-0.75428778 -0.25018558 -0.07108409
-0.66463834 -0.24120052 -0.036311366
-0.59432226 -0.29152274 -0.0059213517
7.4319706 -0.23941189 -0.039324913
7.7705278 -0.23198155 -0.012719751
7.8648205 -0.27808502 -0.055963777
7.9014773 -0.22967762 -0.041824386
-0.92004085 -0.15809003 -0.044797301
-0.83144832 -0.16271061 -0.048203461
-0.7680344 -0.14774701 -0.046435233
-0.63820446 -0.15674968 -0.036374804
-0.55592424 -0.12774122 -0.046900429
-0.46713701 -0.1258478 -0.044988643
-0.38048527 -0.1044501 -0.02321928
-0.25129712 -0.10641063 -0.098114908
7.2157078 -0.17004797 -0.064562403
7.3849268 -0.1159993 -0.039104238
7.4233427 -0.19827652 -0.012150357
7.5410881 -0.14602581 -0.03074879
7.7265377 -0.13351792 -0.06912417
7.8963428 -0.16126855 -0.012922638
-0.71379739 -0.0022487764 -0.016821634
-0.63601184 -0.06181398 -0.038015857
-0.55282795 -0.052466679 -0.061746892
-0.45242843 -0.04067022 -0.054520383
-0.33644071 -0.035743725 -0.042356271
-0.26634818 -0.031365164 -0.030582424
-0.17469944 -0.042794842 -0.031174209
-0.054526892 -0.021402121 -0.023335066
7.3135486 -0.080419734 -0.011967103
7.4239078 -0.034984585 -0.012147084
7.5915375 -0.047693551 -0.067907698
7.7537155 -0.036558099 -0.040999956
7.8395958 -0.049276125 -0.041491471
-0.72811854 0.050215155 -0.017211737
-0.65487778 0.054855801 -0.075344272
-0.54441786 0.054121017 -0.062407978
-0.44411808 0.050888412 -0.041982751
-0.35656077 0.046843182 -0.037083223
-0.2677502 0.02156095 -0.030315198
-0.16851096 0.040254399 -0.048947323
-0.014246293 0.03462201 -0.015079999
0.0052196831 0.051432144 -0.020873632
0.15610415 0.061806001 -0.070253208
7.4520812 0.056259822 -0.023053905
7.5836592 0.023824887 -0.067836143
7.7456803 0.012166748 -0.069285169
7.8127975 0.061343398 -0.05084651
-0.8136797 0.18357432 -0.019658223
-0.7528401 0.14493537 -0.056208096
-0.62786043 0.15642259 -0.070641652
-0.55009288 0.14693923 -0.042282455
-0.44645435 0.14376961 -0.052168146
-0.37796333 0.12582986 -0.034319196
-0.25907898 0.11746895 -0.095284469
-0.19510764 0.10940418 -0.097465605
-0.016391201 0.16217165 -0.065020904
0.022458863 0.15476307 -0.065954372
7.358211 0.16184117 -0.012042368
7.4558787 0.14053521 -0.030336319
7.7272496 0.1942478 -0.069142058
7.8161807 0.15553756 -0.050873633
-0.83226788 0.25402743 -0.049717676
-0.73579258 0.24788661 -0.063272797
-0.64336175 0.24017358 -0.053942461
-0.56218773 0.22650264 -0.047672551
-0.47665483 0.20668712 -0.06392324
-0.027430635 0.21696404 -0.084008224
0.02219628 0.2076696 -0.083196402
7.3987293 0.27905735 -0.01211436
7.4142699 0.29130724 -0.012140539
7.5661426 0.27350801 -0.049320169
7.7370105 0.25129673 -0.050299939
7.8033528 0.23295948 -0.04129862
-0.9202168 0.35643661 -0.023257365
-0.88399583 0.31423962 -0.032416705
-0.73355788 0.32135472 -0.062427767
7.4414282 0.3743014 -0.039561398
7.5644646 0.35671347 -0.026214803
7.7192097 0.33971968 -0.069115222
-1.9735378 0.78495371 -0.018998412
-2.0383894 0.86690313 -0.017254073
-1.9903994 0.84556657 -0.032046668
-1.8812857 0.80360085 -0.033252839
-2.3510296 0.98164999 -0.071249478
-2.1138523 0.94122541 -0.0037861466
-2.0420265 0.91805702 -0.025352994
-2.3771219 1.0510927 -0.063372321
5.220942 1.0726552 -0.008720899
5.7945094 1.0770872 -0.052719701
5.9023638 1.0779632 -0.0098171476
5.2160664 1.1144196 -0.047710706
5.3265467 1.1906245 -0.008930332
5.6387706 1.1216214 -0.093452498
5.9256454 1.1593436 -0.0098793227
6.0448165 1.143164 -0.010065848
5.2931499 1.297184 -0.048748281
5.3590503 1.2686334 -0.089519367
5.8284512 1.2452564 -0.0097516999
5.9454584 1.2020545 -0.054258179
6.0631108 1.2456809 -0.055367317
6.2414122 1.2211229 -0.056887906
-2.2036712 1.3791472 -0.04225678
5.1586037 1.3158706 -0.047621258
5.2609415 1.3595922 -0.04860517
5.6506672 1.3566055 -0.09446016
5.7525539 1.3428952 -0.096020415
5.8903975 1.3166602 -0.053989839
5.9125051 1.3508885 -0.032082714
6.0801687 1.3390369 -0.032916199
7.2570486 1.3725455 -0.066065103
-2.5323205 1.4602683 -0.068888597
5.1703286 1.4406641 -0.087244004
5.5107884 1.4057069 -0.092444845
5.7149181 1.4386697 -0.095792875
5.8553085 1.4740115 -0.0098793227
6.0474281 1.4719677 -0.010183655
6.6082788 1.4335898 -0.011063926
6.9149623 1.443351 -0.011558055
7.6420231 1.4578164 -0.041210588
-2.2816622 1.5875692 -0.045182254
4.7696271 1.5001979 -0.0081809564
5.0813828 1.5457801 -0.086333856
5.4432583 1.5487584 -0.071205899
5.5275898 1.5683188 -0.051395893
5.8372869 1.5281173 -0.0098727783
7.625 1.5292053 -0.041044895
4.9410124 1.6312143 -0.084578574
5.0349197 1.6097531 -0.0086489068
5.1692772 1.6348283 -0.048496537
5.2114425 1.6211882 -0.04881984
5.5431824 1.6862615 -0.0094800927
5.672049 1.6285769 -0.095922895
5.7187262 1.6371126 -0.074945554
5.8707905 1.6856402 -0.0099938558
5.9606133 1.6507921 -0.010119842
6.6607089 1.6990318 -0.011247179
7.229332 1.6876391 -0.066404998
-2.629343 1.7330745 -0.074213095
4.9640188 1.7695606 -0.0086227283
5.0274129 1.7921592 -0.086756423
5.5573401 1.7383385 -0.030736657
5.6198664 1.7580307 -0.074270025
5.7153645 1.7092559 -0.075163394
6.2660313 1.7354569 -0.010638515
6.3797545 1.7130308 -0.059088286
7.345242 1.7878608 -0.067621469
7.4041591 1.7039412 -0.067961365
7.588212 1.7965744 -0.01275902
-2.6675408 1.8553556 -0.076575801
4.6283569 1.8916253 -0.0081809564
4.9095106 1.8199806 -0.0085670976
5.0418434 1.8749368 -0.021981185
5.3057723 1.8445512 -0.091307156
5.5044127 1.8942467 -0.094622687
5.7510109 1.8546051 -0.071657106
6.1939597 1.8417923 -0.010573068
6.9804826 1.8273895 -0.064544514
7.418467 1.8180321 -0.012497229
7.5958495 1.8236026 -0.069875516
7.6910629 1.8209252 -0.070698425
7.7264414 1.8549548 -0.013001176
-2.7075224 1.9737023 -0.078960374
-2.6914806 1.9233587 -0.07795909
4.7085814 1.9938267 -0.083115838
4.8572884 1.9851904 -0.085293695
5.399446 1.9631037 -0.093387485
5.4257507 1.9149672 -0.051467456
5.5517483 1.9527152 -0.023978449
5.6265402 1.9560362 -0.031547893
6.0515575 1.9557658 -0.056887906
6.4198871 1.9309447 -0.010969026
7.3654833 1.952922 -0.012467777
7.4985838 1.9882129 -0.06939251
7.5480099 1.9506423 -0.012755747
4.7082453 2.0111513 -0.045796551
4.8549337 2.0649524 -0.027802603
5.2758055 2.06969 -0.092119791
5.5754366 2.0072806 -0.05300593
5.6429229 2.0717194 -0.097710684
5.7439394 2.0272689 -0.099010892
7.2533836 2.0210879 -0.067353137
7.3518062 2.0858958 -0.012503774
7.4087486 2.0143013 -0.068676941
7.6915431 2.0652597 -0.013030628
4.8873158 2.1149304 -0.086561397
4.9037199 2.1771269 -0.087211505
5.3359647 2.1175232 -0.051351175
5.4437037 2.1059847 -0.030825339
5.7410669 2.1077516 -0.054705415
7.2948699 2.194118 -0.068140261
7.3448009 2.1463227 -0.012520135
7.4116917 2.1659162 -0.069070503
4.6188722 2.2717659 -0.083668426
4.897994 2.2300804 -0.048140045
5.2358961 2.2560163 -0.092672378
5.3543711 2.2080057 -0.051807348
5.5752325 2.2582016 -0.09777569
7.3997402 2.2764568 -0.012667393
11.151514 2.2181745 -0.018603494
-2.1580894 2.3642938 -0.098852091
4.6526613 2.3798628 -0.0085507352
4.8725247 2.3965235 -0.0088845184
5.1587477 2.3390145 -0.092071027
5.2349896 2.3439171 -0.051306449
5.3608909 2.349901 -0.080877617
7.2924809 2.3821414 -0.068623267
7.4215064 2.3599441 -0.06966085
11.34761 2.3871794 -0.018973274
-2.1568465 2.4273386 -0.052578229
-2.0340073 2.4903851 -0.099294499
4.6717982 2.4798722 -0.034501906
4.7118554 2.4570193 -0.0086947205
4.8558249 2.407284 -0.048479944
4.9512987 2.4352679 -0.04935652
5.1961589 2.465095 -0.093485005
5.2559395 2.4330394 -0.051807348
7.2672548 2.4414539 -0.04988056
7.3605456 2.4300172 -0.012682664
7.4329338 2.4798141 -0.07009019
-2.3318586 2.5761309 -0.035292011
-2.2451758 2.578979 -0.041296996
-2.1508856 2.5736456 -0.034107946
-2.0467336 2.5505936 -0.045818437
-1.9490027 2.5546937 -0.028743595
-1.8470265 2.5524411 -0.030736484
4.5388613 2.5983782 -0.0085572805
4.6964626 2.5245569 -0.0087241717
4.7162762 2.5927951 -0.0088059818
5.0656648 2.5510879 -0.050733991
7.3831306 2.5148602 -0.069768183
7.4936209 2.5262511 -0.012939001
11.314565 2.5664527 -0.018983092
-2.3552694 2.6213067 -0.0057659377
-2.0329297 2.6987562 -0.030259669
-1.9364481 2.6866591 -0.050391637
-1.8458285 2.6750529 -0.035777804
-1.7561177 2.6641464 -0.051867492
4.4821539 2.6629841 -0.052063327
4.5415277 2.6858575 -0.085765019
4.6700239 2.6514349 -0.028348226
4.7287164 2.6399274 -0.042816289
4.8532209 2.6383071 -0.0090383207
4.9605126 2.6664956 -0.050376207
5.012517 2.6741865 -0.092347324
6.6540098 2.6103573 -0.063936278
6.8730836 2.6714151 -0.012065275
7.06885 2.6965046 -0.067675136
7.3584328 2.6492229 -0.04135076
7.4684753 2.6359274 -0.012958635
11.140457 2.6006651 -0.018718027
-2.5046353 2.7439332 -0.024261821
-2.4552059 2.7383854 -0.043245062
-2.3545594 2.7291222 -0.038792003
-2.2523825 2.7257047 -0.031642232
-2.1434336 2.7149706 -0.034573652
-2.0549855 2.717515 -0.030405907
-1.9601836 2.7111535 -0.020730274
-1.8497572 2.7293217 -0.016463799
-1.7486269 2.7460713 -0.052918494
4.2880011 2.7734933 -0.045680273
4.3273978 2.7716842 -0.058544066
4.4762807 2.7528474 -0.040681977
4.5292702 2.7475452 -0.066745684
4.6477861 2.7191362 -0.048166879
4.7327456 2.7371159 -0.048854969
4.8506598 2.7566783 -0.090689555
7.2369967 2.7346401 -0.050350767
7.4077969 2.7328801 -0.041773118
-2.5407965 2.8457208 -0.089903861
-2.4016559 2.8119771 -0.0060506351
-2.3992798 2.8271334 -0.0060669971
-2.1605616 2.8963418 -0.045704387
-1.9261882 2.8632727 -0.02452787
-1.8519962 2.8583529 -0.021201985
-1.7795817 2.8636308 -0.0548038
-1.5877967 2.8041353 -0.09951055
-1.4816445 2.8413682 -0.098954976
-1.381502 2.8425641 -0.097596884
4.2831364 2.8134999 -0.064578906
4.317163 2.874866 -0.046395842
4.4681487 2.8384387 -0.025213759
4.5326147 2.8367062 -0.047829967
7.0644507 2.8872652 -0.068265483
7.2539325 2.8390527 -0.041263491
-2.7106206 2.9508781 -0.094427325
-2.6510758 2.938766 -0.093272895
-2.5386903 2.9207962 -0.091199651
-2.4352629 2.9280491 -0.07575959
-2.3425696 2.9238968 -0.088293955
-2.2556772 2.918925 -0.086935341
-2.1467206 2.9142749 -0.085301869
-2.0468173 2.9219873 -0.084076762
-1.9339927 2.9241624 -0.031359904
-1.8321571 2.9642596 -0.028286299
-1.7659839 2.9822335 -0.05949999
-1.6824135 2.982152 -0.0056023188
4.273797 2.9339411 -0.061482549
4.3193502 2.905767 -0.04656579
7.1902657 2.9123573 -0.06939251
7.2049675 2.9976635 -0.069803961
7.4428234 2.9332662 -0.01308953
-2.0445938 3.0496788 -0.086526975
-1.8470322 3.0352943 -0.026510889
-1.7421421 3.0321867 -0.044054136
-1.6871243 3.0070381 -0.0056415875
7.4812274 3.0576367 -0.013223697
-2.0474288 3.145473 -0.07020355
-1.7182271 3.1372705 -0.0058526564
-1.6782768 3.1577096 -0.0058510201
7.2070866 3.1457036 -0.070340641
7.3747287 3.1273696 -0.052099984
7.4305987 3.118927 -0.01318552
-2.0523396 3.2489514 -0.076594904
-1.8813961 3.2744937 -0.061386105
-1.7275254 3.2016661 -0.005952464
7.0067005 3.2971032 -0.06926728
7.1940775 3.2346659 -0.041752718
7.4554009 3.2541091 -0.037126858
-2.1156256 3.310658 -0.092589669
-2.0598187 3.3377807 -0.054105919
-1.9368322 3.3532841 -0.038538795
7.0096269 3.3931146 -0.06966085
7.2132721 3.3943083 -0.013043717
7.4527221 3.3275678 -0.033243313
-2.0615625 3.4445434 -0.02615053
-1.9411843 3.4357662 -0.075596385
6.9789581 3.4871879 -0.069786072
7.0529904 3.4414971 -0.041329157
7.1825695 3.4443793 -0.051870994
7.2005291 3.4298491 -0.071342438
7.4614563 3.4445524 -0.03348653
-2.144393 3.5428362 -0.067443177
-2.0254488 3.553704 -0.0066926763
-1.9482608 3.5439489 -0.080436379
-1.8035445 3.5535011 -0.0065202219
6.9783106 3.5418305 -0.070000745
7.187005 3.5770671 -0.013135344
7.463748 3.5600429 -0.013530212
-2.2023735 3.6194232 -0.099846058
-2.1487448 3.6596375 -0.037961051
-2.0480807 3.6436749 -0.037388589
-1.970077 3.6376219 -0.097490087
-1.8173655 3.6372318 -0.0066527538
6.9770322 3.638217 -0.070385367
7.1923037 3.6552515 -0.03291411
-2.1802135 3.7535841 -0.038828678
-2.003063 3.7975395 -0.069788702
-1.9853458 3.7073121 -0.068358473
-1.8363036 3.7483621 -0.006829462
6.9711456 3.7897449 -0.070975706
7.1844063 3.7463593 -0.033014685
-2.2102377 3.8609347 -0.039794698
-2.0470734 3.8565006 -0.04968822
-1.8578321 3.8379822 -0.0069767195
6.9046683 3.895345 -0.070913099
7.4663906 3.8265076 -0.044364657
-2.2359521 3.9633942 -0.05742038
-2.0421035 3.9463565 -0.072226591
-2.0543578 4.0007844 -0.07310424
7.7994447 4.1610169 -0.014463931
-2.3142345 4.2569747 -0.078760147
-2.104594 4.2620692 -0.077264905
-2.1267254 4.3759274 -0.079085201
-1.9372263 4.3085117 -0.0077293674
-2.1571522 4.492259 -0.081003003
7.8995681 4.4239712 -0.014814076
-2.1628087 4.5405374 -0.081750624
-1.9785881 4.5722475 -0.0081515051
7.7710857 4.5793467 -0.014758446
7.8052368 4.5009079 -0.014742084
7.9787145 4.5676031 -0.082237013
-2.1847825 4.6429653 -0.083408386
-1.7576789 4.6295581 -0.0081024198
7.8822126 4.6782546 -0.01499733
-2.2034411 4.7600446 -0.085261188
6.8215961 4.7783213 -0.074499898
7.8674808 4.7534618 -0.015039871
-2.222599 4.8612986 -0.086886451
-2.0213313 4.8799253 -0.0086423624
6.8400712 4.8717742 -0.075117074
7.4301596 4.8807135 -0.047053717
-2.2287848 4.9156103 -0.087731577
-2.0310569 4.9473062 -0.0087503511
7.2143397 4.9194441 -0.014287223
7.4277773 4.9462609 -0.014601371
7.7846937 4.9403162 -0.015085684
7.9874234 4.9292822 -0.01535729
-2.2573004 5.0628462 -0.090104468
6.8230262 5.0562301 -0.07596384
6.9206448 5.0115538 -0.07643193
7.0246472 5.0365748 -0.077317461
7.5242114 5.0789671 -0.014853344
7.8388925 5.0964737 -0.015298389
-2.281373 5.1713905 -0.091876
-1.8245137 5.1694674 -0.0089696003
6.849822 5.1429801 -0.076619774
7.4668956 5.1780119 -0.014867525
7.5580049 5.1886477 -0.08200445
7.8184052 5.1533303 -0.015321296
-2.3469844 5.2529316 -0.051480696
-2.0770619 5.2220807 -0.0091953948
6.791276 5.2167807 -0.076601893
6.8154163 5.2524815 -0.076968625
7.3616285 5.2432485 -0.014787897
7.4718981 5.2689204 -0.048425078
7.594203 5.284008 -0.082755797
7.6094146 5.2591906 -0.015134769
-2.4033391 5.3005919 -0.0095226336
6.8209901 5.3772349 -0.077693135
6.9267411 5.3555255 -0.078319252
7.0693383 5.3600879 -0.079356834
7.4068713 5.3459921 -0.014946062
7.5396996 5.3344545 -0.015111863
-2.6144459 5.444571 -0.05402562
-2.3282092 5.4268837 -0.095987909
-2.06427 5.4370894 -0.052022021
6.780108 5.4318905 -0.077711023
6.8011346 5.4312186 -0.077854142
6.9527845 5.4458032 -0.07899905
7.0782061 5.4903879 -0.014657002
7.1451159 5.4707317 -0.014724085
7.2377806 5.4461761 -0.014820619
7.3852768 5.401248 -0.081843443
7.4404888 5.4775572 -0.015117317
-2.3455832 5.5151415 -0.097418137
6.7700238 5.5649195 -0.078390814
6.9444084 5.5545559 -0.079544678
7.0702758 5.5557942 -0.014712632
7.3561492 5.5051055 -0.015033325
-2.4865768 5.6969724 -0.010170565
-2.3648028 5.6340103 -0.099319696
6.8587246 5.6018176 -0.079213724
7.0884104 5.6697536 -0.014851708
-2.672497 5.7025776 -0.056333337
-2.5019317 5.7816229 -0.056351226
6.8031201 5.7004066 -0.079392619
7.0886583 5.7526298 -0.037169635
6.7976842 5.8428035 -0.080179743
6.8075442 5.8420286 -0.080242358
7.0753918 5.8533745 -0.048673239
6.8042259 5.9420815 -0.080805868
7.0675426 5.9409084 -0.048879292
7.4780221 5.9333849 -0.015619081
6.7973046 6.0497961 -0.081396215
7.0675278 6.0683546 -0.015241668
7.396801 6.0026474 -0.015586358
-2.5602729 6.1265392 -0.01086431
6.7858934 6.1358738 -0.081834503
7.071702 6.1560178 -0.049617548
7.4829254 6.190414 -0.086870335
-2.5814791 6.2322421 -0.060340535
-2.2228642 6.2356362 -0.010831586
6.780005 6.2476506 -0.082469575
7.0640898 6.2476401 -0.03839352
7.4732275 6.2619629 -0.015952867
-2.5937886 6.3180242 -0.061091885
-2.2291355 6.3158979 -0.059911191
6.7713051 6.3587484 -0.083089732
6.9743032 6.3261304 -0.015406378
7.025857 6.346189 -0.06168085
-2.6139731 6.424571 -0.011348623
6.6803222 6.4940462 -0.083337203
6.7665305 6.4549794 -0.083650261
7.0636182 6.4680791 -0.085671753
-2.6341658 6.5329151 -0.011525332
-2.2516003 6.5095863 -0.011270085
7.0606017 6.5474219 -0.03921555
-2.6581714 6.6224232 -0.011675861
6.7555428 6.6502514 -0.084795177
7.0501661 6.6484065 -0.039476693
6.7469168 6.7469525 -0.085349739
-2.2839503 6.8102074 -0.011752762
6.7375941 6.8013954 -0.085635975
-2.3211524 6.9211354 -0.011944196
8.555768 7.0779467 -0.018168269
8.575942 7.2780762 -0.01840388
-3.0652685 7.3349552 -0.071109876
8.4315233 7.3630648 -0.018315526
8.4240456 7.450345 -0.018400608
-3.0600693 7.5209775 -0.072630465
-2.9517131 7.5240917 -0.028002199
-2.8441262 7.5385942 -0.013183339
8.4306993 7.5511646 -0.018518412
-2.8180811 7.6387439 -0.01332187
-2.1302967 7.6685925 -0.013022446
-2.8373098 7.7659068 -0.013528029
-2.5560746 7.7424612 -0.013340686
-2.4381204 7.7515907 -0.013295691
7.9597626 7.737813 -0.018163359
8.0961523 7.7476726 -0.01833516
8.1566849 7.7566547 -0.018416969
8.4395056 7.7157984 -0.018709846
7.94876 7.8248711 -0.018250078
8.435358 7.8221731 -0.018822744
7.5834351 7.9620209 -0.098355249
7.6298909 7.9480419 -0.098552026
7.7701559 7.942955 -0.099392831
7.9379358 7.9379854 -0.018367883
7.5834246 8.0501671 -0.098927706
7.9321718 8.0325289 -0.018470963
7.5790029 8.1474476 -0.099535942
7.9192581 8.1208591 -0.018559318
7.9101167 8.2659464 -0.018719664
-3.4171619 8.4940319 -0.081897117
8.6433744 8.4819679 -0.019814275
8.7834368 8.4583969 -0.019951716
-3.3378086 8.5083332 -0.081753999
-3.288902 8.5412893 -0.08187028
5.268672 8.5673828 -0.053123295
5.3641543 8.5810432 -0.065929256
5.4701414 8.5897093 -0.091092207
5.7713466 8.5789633 -0.092487566
5.8400626 8.593298 -0.017000027
5.9629374 8.5987434 -0.017121105
8.1549616 8.5755339 -0.019362686
-3.1626959 8.6988888 -0.015144586
5.5420604 8.6127539 -0.054235589
5.6432261 8.6204243 -0.016858226
5.7465997 8.6296854 -0.016964031
5.930222 8.6091986 -0.017104745
6.0452852 8.6303148 -0.017240547
6.1436415 8.6257029 -0.017327268
8.2117748 8.6897821 -0.019562304
-3.1186333 8.7052116 -0.01512986
-3.0285079 8.71138 -0.048797153
8.2082958 8.7685375 -0.019652292
8.8079128 8.7252893 -0.020285498
-3.0258498 8.8605709 -0.015319658
-2.3022909 8.8512888 -0.048393443
4.972363 8.8137283 -0.090519749
5.0307016 8.8197079 -0.090823859
8.1707191 8.8390045 -0.019694835
8.5736217 8.8751459 -0.0201906
-3.363626 8.9440393 -0.085474968
-3.0489616 8.9974213 -0.015543817
-2.6560023 8.9321241 -0.015247121
5.4983582 8.9095564 -0.093650371
5.5347667 8.9058275 -0.093793482
5.7421584 8.9546413 -0.095153064
5.8489299 8.9653549 -0.095752358
5.9554787 8.9738226 -0.096339725
6.0603971 8.9933691 -0.057378206
6.1107259 8.9916601 -0.09724611
8.1890755 8.9430723 -0.019840457
-3.0720694 9.0656118 -0.015661621
6.1581426 9.0004778 -0.097550236
6.2537193 9.0179749 -0.098164432
6.3689222 9.0318031 -0.098856151
6.4557686 9.0339193 -0.099321276
6.5607414 9.0599461 -0.018302435
6.6387815 9.0773602 -0.018400608
6.7361808 9.0900936 -0.018511869
6.8309774 9.0979786 -0.018614948
8.1863775 9.053688 -0.019971352
-3.3962426 9.1176119 -0.087031335
-3.0777926 9.1772604 -0.086584106
-2.5487726 9.1471615 -0.084938295
-2.1999855 9.1636019 -0.015419466
6.9057908 9.1079426 -0.018701667
7.2005267 9.163394 -0.019068174
7.6576128 9.1974792 -0.019581938
8.1827183 9.1792622 -0.020120244
-3.4298825 9.2971039 -0.088641368
-3.0936902 9.2246628 -0.087031335
-2.5701654 9.2802877 -0.086136878
5.3020825 9.2617064 -0.017461434
7.8688049 9.2720594 -0.019897722
7.9432421 9.2413597 -0.019938627
8.0471153 9.2440624 -0.020053159
8.1482506 9.2520981 -0.020172058
8.413991 9.2468557 -0.020455662
-2.5668263 9.3251667 -0.015825242
5.0137382 9.3977909 -0.0952783
5.307127 9.3727398 -0.017623417
7.855299 9.3450069 -0.019974623
8.3597364 9.3040028 -0.02046548
-3.4672318 9.4900455 -0.09037663
-3.1258016 9.4184532 -0.088766597
5.0150714 9.4718218 -0.095868647
5.3052373 9.4731827 -0.097120889
7.8630824 9.4141541 -0.020069521
-3.152353 9.5992355 -0.09037663
5.0085464 9.5317888 -0.096315868
7.3243408 9.5659609 -0.019712832
7.4363985 9.5869141 -0.019851908
7.7758422 9.581831 -0.0201906
7.8506446 9.5508118 -0.020228779
-3.5227027 9.6890745 -0.092219234
-2.6000659 9.6229115 -0.016309556
-2.2287352 9.6499557 -0.016204838
5.2800879 9.6402836 -0.098319471
7.5126271 9.6226454 -0.019974623
7.6439209 9.6338215 -0.02012188
7.753788 9.6471825 -0.02025114
-3.1791623 9.7844572 -0.016833136
-3.5620251 9.8939066 -0.094061822
-3.2120636 9.9924164 -0.017173463
-3.6007664 10.100964 -0.095922306
-3.2412596 10.193054 -0.017500702
-2.6122344 10.173985 -0.017186552
-3.2691045 10.393569 -0.097460784
-3.6797204 10.531194 -0.099786393
5.5537176 10.529041 -0.019477222
5.619256 10.532779 -0.019532852
-3.3019125 10.61426 -0.018187903
-3.330884 10.827209 -0.018534774
5.3473806 10.872102 -0.019824093
5.3342476 10.931985 -0.01990263
-3.3667035 11.06723 -0.018927461
5.3390903 11.029697 -0.020049887
-3.40277 11.313328 -0.019329963
-2.9518027 11.348373 -0.019185979
-3.4974167 11.829818 -0.020184057
-3.5326002 12.088389 -0.020606192
-3.577853 12.387646 -0.021097051
-2.4033034 12.386994 -0.020645462
-3.5625246 12.481521 -0.021237763
-2.3974407 12.461458 -0.020763267
-3.5352349 12.535001 -0.021309756
5.5643625 12.61313 -0.022556532
-2.368716 12.855578 -0.021388292
-2.870729 12.938334 -0.021684444
-2.3810382 12.922454 -0.021499554
5.6101036 12.964186 -0.023112839
5.626122 13.114081 -0.023348451
5.3294029 13.399005 -0.023593878
-2.4328735 13.44057 -0.022348735
5.3878603 13.423029 -0.02366587
5.4661298 13.434541 -0.023731317
-3.6918917 13.57905 -0.023024483
-2.9470205 13.688336 -0.02290995
-2.4331698 13.687395 -0.022746332
-2.9604907 13.750903 -0.023014667
-4.0117521 14.940754 -0.02531188
-3.9724791 14.982283 -0.025360964
-2.8605578 14.995578 -0.024978096
-3.9565845 15.017513 -0.025410051
-2.8703017 15.046657 -0.025063178
-4.0412045 15.739456 -0.026588108
-3.141691 15.925041 -0.026558658
-2.8402736 15.977489 -0.026552113
-4.2526159 16.781532 -0.028325744
-4.2175789 16.865629 -0.028445184
-4.1640978 16.876854 -0.028441913
-4.0359364 16.987106 -0.028567899
-3.3209698 16.974155 -0.028299563
-3.397687 17.081335 -0.028495908
-2.5246778 17.159241 -0.028378101
-4.3156314 17.73031 -0.029857216
-3.3489962 17.86071 -0.02973287
-3.3700054 17.972755 -0.029919393
-2.7525308 19.124912 -0.03161449
-4.7225075 20.15818 -0.033875704
-2.8335171 20.367821 -0.033646636
-2.8437796 20.441763 -0.03376881
-3.6152372 20.523998 -0.034098227
-3.6032832 20.645895 -0.034291297
-3.169739 20.642023 -0.034170222
-4.7915721 20.971546 -0.035197746
-4.8232012 21.109978 -0.035430085
-3.1726632 21.10281 -0.034916323
-4.7783809 21.220636 -0.035590433
-3.6689899 21.219107 -0.035233743
-4.8095746 21.359165 -0.035822771
